0.024311000481247902 0.11902400106191635 -0.006271999794989824
0.02260500006377697 0.11388500034809113 -0.012729000300168991
0.02081199921667576 0.11450300365686417 -0.013399000279605389
-0.07071500271558762 0.17928700149059296 -0.056956999003887177
-0.027295000851154327 0.17850899696350098 -0.016961999237537384
-0.07141400128602982 0.16661900281906128 -0.04698999971151352
-0.034634001553058624 0.17699599266052246 -0.009991000406444073
-0.07261600345373154 0.16661199927330017 -0.04399999976158142
-0.06949599832296371 0.1680299937725067 -0.05200599879026413
-0.07427199929952621 0.16660800576210022 -0.040998999029397964
-0.06891699880361557 0.16802699863910675 -0.053015999495983124
-0.0769139975309372 0.17371000349521637 -0.047912001609802246
-0.03831100091338158 0.1726749986410141 -0.01092000026255846
-0.03723600134253502 0.17262700200080872 -0.011851999908685684
-0.04578299820423126 0.1167600005865097 -0.015490000136196613
-0.07302399724721909 0.1596290022134781 -0.03493199869990349
-0.07132799923419952 0.15538200736045837 -0.04391000047326088
-0.07118900120258331 0.15537400543689728 -0.044902998954057693
-0.07096999883651733 0.15536899864673615 -0.045910000801086426
-0.0776280015707016 0.15832899510860443 -0.01591400057077408
-0.07765000313520432 0.15284499526023865 -0.0008919999818317592
-0.08523699641227722 0.14738799631595612 0.006184000056236982
-0.09113200008869171 0.14608800411224365 0.016147000715136528
-0.05153699964284897 0.05314899981021881 0.03062799945473671
-0.051812998950481415 0.05317499861121178 0.02964000031352043
-0.05197799950838089 0.05319000035524368 0.028649000450968742
-0.05206799879670143 0.053185999393463135 0.027639999985694885
-0.05217999964952469 0.05319200083613396 0.026636000722646713
-0.05219100043177605 0.05318500101566315 0.025637999176979065
-0.05210300162434578 0.05316999927163124 0.024632999673485756
-0.051952000707387924 0.05315199866890907 0.023631999269127846
-0.05162300169467926 0.05310799926519394 0.022623000666499138
-0.05138999968767166 0.05307900160551071 0.02162100002169609
-0.051047999411821365 0.053036998957395554 0.02061299979686737
-0.05078199878334999 0.05300699919462204 0.019620999693870544
-0.05043699964880943 0.05296799913048744 0.01862199977040291
-0.05015699937939644 0.052942998707294464 0.017627999186515808
-0.049876000732183456 0.05291900038719177 0.016637999564409256
-0.07287900149822235 0.1512179970741272 -0.038888998329639435
-0.08653300255537033 0.1418839991092682 0.008201999589800835
-0.08601099997758865 0.13215899467468262 0.0002770000137388706
-0.03226500004529953 0.17705899477005005 -0.012985000386834145
-0.09086599946022034 0.14201800525188446 0.026169000193476677
-0.08527900278568268 0.13212700188159943 -0.0007019999902695417
-0.05550599843263626 0.05340699851512909 0.008688000030815601
-0.05597800016403198 0.0534450002014637 0.007672000210732222
-0.05626999959349632 0.05346899852156639 0.006684999912977219
-0.05651300027966499 0.05348600074648857 0.005671999882906675
-0.05675800144672394 0.053509000688791275 0.004668999928981066
-0.05698399990797043 0.05352399870753288 0.003653000108897686
-0.057103000581264496 0.05352399870753288 0.0026400000788271427
-0.057092998176813126 0.05352399870753288 0.0016250000335276127
-0.05696700140833855 0.053502000868320465 0.0006120000034570694
-0.05670100077986717 0.05347299948334694 -0.00039000000106170774
-0.056313998997211456 0.05342800170183182 -0.001386999967508018
-0.05584400147199631 0.05337899923324585 -0.002394000068306923
-0.05545499920845032 0.053335998207330704 -0.0033809999004006386
-0.05485999956727028 0.053272999823093414 -0.004389999900013208
-0.054110001772642136 0.05319900065660477 -0.005371999926865101
-0.05308900028467178 0.05308900028467178 -0.006438000127673149
-0.008785000070929527 0.11067400127649307 -0.021239999681711197
-0.05798500031232834 0.11664599925279617 -0.013252000324428082
0.03441200032830238 0.09572199732065201 -0.013333000242710114
0.010125000029802322 0.12530599534511566 -0.007038000039756298
-0.08997900038957596 0.12813800573349 0.0052720000967383385
-0.032138001173734665 0.05116799846291542 -0.012423999607563019
-0.031633999198675156 0.05111299827694893 -0.013364999555051327
-0.03136200085282326 0.051079001277685165 -0.01435799989849329
-0.031113000586628914 0.05104999989271164 -0.0153609998524189
-0.030726000666618347 0.05100800096988678 -0.016355000436306
-0.030598999932408333 0.050988998264074326 -0.017356999218463898
-0.03009199909865856 0.05093900114297867 -0.018358999863266945
-0.029712999239563942 0.05090000107884407 -0.01935799978673458
-0.029712000861763954 0.050898000597953796 -0.020354000851511955
-0.02927600033581257 0.05087900161743164 -0.021397000178694725
-0.028909999877214432 0.05084199830889702 -0.022415999323129654
-0.028251999989151955 0.05076099932193756 -0.02340400032699108
-0.027470000088214874 0.05067899823188782 -0.024396000429987907
0.025162000209093094 0.11860600113868713 -0.005803000181913376
-0.03088800050318241 0.10876800119876862 -0.019152000546455383
-0.03400300070643425 0.10890000313520432 -0.019286999478936195
-0.03309199959039688 0.10861299932003021 -0.018991999328136444
0.026971999555826187 0.11204200237989426 -0.010754999704658985
-0.07187499850988388 0.15088500082492828 -0.04284299910068512
-0.033907998353242874 0.177046999335289 -0.010994000360369682
-0.07222899794578552 0.16662700474262238 -0.04498500004410744
-0.06708300113677979 0.1680310070514679 -0.05699700117111206
-0.07367400079965591 0.16661499440670013 -0.04199400171637535
-0.08439499884843826 0.13208000361919403 -0.0016540000215172768
-0.07456199824810028 0.17355400323867798 -0.04909000173211098
-0.05890300124883652 0.1125589981675148 -0.015598000027239323
-0.08210600167512894 0.11020500212907791 0.029412999749183655
-0.06321199983358383 0.17230400443077087 -0.06156900152564049
-0.07334399968385696 0.15964500606060028 -0.033925000578165054
-0.07358399778604507 0.1596519947052002 -0.03292100131511688
-0.07589799910783768 0.1596589982509613 -0.026934999972581863
-0.08119700103998184 0.14038300514221191 -0.0018220000201836228
-0.0003459999861661345 0.12560999393463135 -0.007236000150442123
0.02881000004708767 0.11348199844360352 -0.008306000381708145
-0.002658999990671873 0.09811200201511383 -0.027910999953746796
-0.02062300033867359 0.09504800289869308 -0.030799999833106995
-0.051833998411893845 0.05178099870681763 0.03065500035881996
-0.05205899849534035 0.051791001111269 0.02964800037443638
-0.05217599868774414 0.051798999309539795 0.028644999489188194
-0.05229499936103821 0.05180500075221062 0.027646999806165695
-0.05231799930334091 0.05180000141263008 0.026644999161362648
-0.05231500044465065 0.05179399996995926 0.02564300037920475
-0.052209001034498215 0.05177899822592735 0.024637000635266304
-0.051982998847961426 0.05174899846315384 0.023631999269127846
-0.05173899978399277 0.051718998700380325 0.022631999105215073
-0.05139100179076195 0.05167900025844574 0.021623000502586365
-0.05102299898862839 0.05163700133562088 0.020627999678254128
-0.05066100135445595 0.051594000309705734 0.019627999514341354
-0.05031700059771538 0.0515579991042614 0.018629999831318855
-0.05014700070023537 0.05154100060462952 0.017643999308347702
-0.049911998212337494 0.051513999700546265 0.016649000346660614
-0.07569800317287445 0.14859700202941895 -0.013864999637007713
-0.035656001418828964 0.12293499708175659 -0.007988999597728252
-0.07345200330018997 0.1430010050535202 -0.00786999985575676
-0.07262100279331207 0.14284899830818176 -0.008918999694287777
-0.07188300043344498 0.14296899735927582 -0.009859999641776085
-0.07196000218391418 0.06816200166940689 0.027636999264359474
-0.046369001269340515 0.11362800002098083 -0.016214000061154366
0.032131001353263855 0.10567999631166458 -0.01192499976605177
-0.05626700073480606 0.05210699886083603 0.007701999973505735
-0.05660700052976608 0.05212799832224846 0.006686999928206205
-0.05685200169682503 0.05213800072669983 0.0056779999285936356
-0.057057999074459076 0.05214599892497063 0.0046629998832941055
-0.057287998497486115 0.05215999856591225 0.003650000086054206
-0.05740800127387047 0.052163999527692795 0.002644000109285116
-0.057326000183820724 0.05215200036764145 0.0016339999856427312
-0.057092998176813126 0.05212400108575821 0.0006169999833218753
-0.05690699815750122 0.05209700018167496 -0.000371000001905486
-0.05644400045275688 0.05204800143837929 -0.0013830000534653664
-0.055969998240470886 0.05199600011110306 -0.0023900000378489494
-0.05547500029206276 0.051940999925136566 -0.003384999930858612
-0.05483400076627731 0.05185500159859657 -0.004368999972939491
-0.054099999368190765 0.05177199840545654 -0.005357000045478344
-0.052942000329494476 0.051663000136613846 -0.006388000212609768
-0.009926999919116497 0.11028800159692764 -0.02104399912059307
0.03383700177073479 0.10990600287914276 -0.006444000173360109
0.04536899924278259 0.06938199698925018 0.0024510000366717577
0.0008859999943524599 0.12296999990940094 -0.010405000299215317
0.026145000010728836 0.10040400177240372 -0.018303999677300453
-0.03473300114274025 0.04988599941134453 -0.012311000376939774
-0.034014999866485596 0.04989299923181534 -0.013349000364542007
-0.03338000178337097 0.04983000084757805 -0.014349999837577343
-0.032999999821186066 0.049789998680353165 -0.015350000001490116
-0.032368000596761703 0.049727000296115875 -0.01634800061583519
-0.03185899928212166 0.04967600107192993 -0.017350999638438225
-0.0321119986474514 0.04969299957156181 -0.018350999802350998
-0.03160800039768219 0.049639999866485596 -0.019348999485373497
-0.030615000054240227 0.049571000039577484 -0.020360000431537628
-0.030121000483632088 0.049389999359846115 -0.021425999701023102
-0.029354000464081764 0.04954500123858452 -0.02245599962770939
-0.02859099954366684 0.04948600009083748 -0.02350899949669838
-0.07729700207710266 0.06859000027179718 0.013806000351905823
0.034324001520872116 0.1007319986820221 -0.012644000351428986
0.033525001257658005 0.10120400041341782 -0.01317100040614605
-0.03202899917960167 0.10861600190401077 -0.01899000070989132
0.007168999873101711 0.1257539987564087 -0.007499000057578087
0.023482000455260277 0.11352100223302841 -0.012342999689280987
-0.023447999730706215 0.12282399833202362 -0.005994999781250954
-0.03685399889945984 0.09859099984169006 -0.022326000034809113
-0.08303000032901764 0.11019600182771683 0.0013180000241845846
-0.07875899970531464 0.16386500000953674 -0.029947999864816666
-0.07875800132751465 0.1638689935207367 -0.028947999700903893
-0.06889700144529343 0.12091399729251862 -0.008961999788880348
-0.05172999948263168 0.16409499943256378 0.000043000000005122274
0.031647998839616776 0.10068300366401672 -0.014624999836087227
-0.07284600287675858 0.16521599888801575 -0.041985999792814255
-0.07795199751853943 0.16529199481010437 -0.02695300057530403
-0.050043001770973206 0.1655389964580536 -0.0019519999623298645
-0.09171400219202042 0.12831300497055054 0.033243000507354736
-0.07927999645471573 0.16797800362110138 -0.03700900077819824
-0.04134000092744827 0.17123499512672424 -0.00891599990427494
-0.07878100126981735 0.1666560024023056 -0.03196600079536438
-0.08067800104618073 0.14036400616168976 -0.00279000005684793
-0.08233500272035599 0.14039400219917297 0.00022200000239536166
-0.07603800296783447 0.14861300587654114 -0.011861000210046768
-0.07617700099945068 0.14861400425434113 -0.010866000317037106
-0.07727500051259995 0.14864499866962433 -0.005867999978363514
-0.05229799821972847 0.050425998866558075 0.03165699914097786
-0.05245300009846687 0.05045200139284134 0.030664000660181046
-0.05254200100898743 0.05044100061058998 0.02965399995446205
-0.052650999277830124 0.05043900012969971 0.028651999309659004
-0.05265999957919121 0.050436001271009445 0.027651000767946243
-0.052657000720500946 0.05042700096964836 0.026652999222278595
-0.05255400016903877 0.050416000187397 0.025647999718785286
-0.05243099853396416 0.05039599910378456 0.02464599907398224
-0.05211000144481659 0.05036399886012077 0.02363399975001812
-0.05186200141906738 0.050331998616456985 0.022633999586105347
-0.05151300132274628 0.05028900131583214 0.021625999361276627
-0.051134999841451645 0.05024699866771698 0.020633000880479813
-0.05067100003361702 0.05019700154662132 0.019634999334812164
-0.05039199814200401 0.05016399919986725 0.01864599995315075
-0.050165001302957535 0.05013899877667427 0.01765199936926365
-0.0500670000910759 0.050126999616622925 0.016662999987602234
-0.050356000661849976 0.05015400052070618 0.01569399982690811
-0.07069999724626541 0.15816999971866608 -0.044916000217199326
-0.09106499701738358 0.14333400130271912 0.015180000104010105
-0.09154800325632095 0.1433349996805191 0.016171999275684357
-0.09178700298070908 0.14334100484848022 0.017165999859571457
-0.09189999848604202 0.14334900677204132 0.018163999542593956
-0.09179999679327011 0.14335300028324127 0.019164999946951866
-0.07859499752521515 0.15269699692726135 0.0011840000515803695
-0.07450100034475327 0.15128600597381592 -0.029877999797463417
-0.056984998285770416 0.05077400058507919 0.006705999840050936
-0.057319000363349915 0.05078800022602081 0.0056870002299547195
-0.05750799924135208 0.05079299956560135 0.0046629998832941055
-0.05764999985694885 0.05079999938607216 0.003656999906525016
-0.05775199830532074 0.05080199986696243 0.0026499999221414328
-0.05755800008773804 0.050783999264240265 0.0016349999932572246
-0.05742799863219261 0.05076000094413757 0.0006280000088736415
-0.057057999074459076 0.05071499943733215 -0.00037399999564513564
-0.0566909983754158 0.05067700147628784 -0.0013780000153928995
-0.05629900097846985 0.050627999007701874 -0.002372999908402562
-0.05559999868273735 0.050558000802993774 -0.003386999946087599
-0.05505099892616272 0.05048799887299538 -0.004346000030636787
-0.05426599830389023 0.05042000114917755 -0.005394999869167805
-0.019433999434113503 0.11555500328540802 -0.016367999836802483
-0.01118400041013956 0.11011499911546707 -0.02064099907875061
0.022393999621272087 0.08607599884271622 -0.02521900087594986
-0.08920600265264511 0.12812699377536774 0.004261999856680632
-0.04070400074124336 0.04914800077676773 -0.011382999829947948
0.01929200068116188 0.09880000352859497 -0.022554999217391014
-0.036556001752614975 0.0488010011613369 -0.013394000008702278
-0.03600800037384033 0.04852199926972389 -0.015323000028729439
-0.03511900082230568 0.048427000641822815 -0.01732799969613552
-0.034605998545885086 0.048381999135017395 -0.018326999619603157
-0.03387200087308884 0.04839000105857849 -0.019336000084877014
-0.03337499871850014 0.04836300015449524 -0.02033899910748005
-0.03273800015449524 0.04828900098800659 -0.02133600041270256
-0.03211300075054169 0.04824399948120117 -0.022342000156641006
-0.03156200051307678 0.04807300120592117 -0.023298000916838646
-0.030548999086022377 0.047958001494407654 -0.024277999997138977
-0.03371400013566017 0.12059199810028076 -0.009511999785900116
0.029272999614477158 0.10331299901008606 -0.015409000217914581
0.028366999700665474 0.10361500084400177 -0.015731999650597572
0.04636000096797943 0.06921900063753128 0.0026050000451505184
-0.07794000208377838 0.15830500423908234 -0.018922999501228333
0.018763000145554543 0.10555800050497055 -0.017785999923944473
0.01771100051701069 0.09446000307798386 -0.02400599978864193
-0.019825000315904617 0.12083099782466888 -0.009890999644994736
-0.07305599749088287 0.16382500529289246 -0.039965998381376266
-0.07260999828577042 0.15682899951934814 -0.034908998757600784
-0.07165099680423737 0.1567939966917038 -0.04090699926018715
-0.06976799666881561 0.15674200654029846 -0.04991300031542778
-0.07010400295257568 0.1567479968070984 -0.04890599846839905
-0.07331500202417374 0.16521500051021576 -0.04098600149154663
-0.07762999832630157 0.16532200574874878 -0.025944000110030174
-0.07902800291776657 0.16665099561214447 -0.03296300023794174
-0.07724899798631668 0.17221400141716003 -0.04599799960851669
-0.07480400055646896 0.16794300079345703 -0.0420599989593029
-0.08799099922180176 0.13637499511241913 0.005206000059843063
-0.0751200020313263 0.16100600361824036 -0.030969999730587006
-0.0528779998421669 0.04908299818634987 0.034662000834941864
-0.053481001406908035 0.049136001616716385 0.03365899994969368
-0.05372000113129616 0.04915599897503853 0.032659001648426056
-0.053707998245954514 0.049136001616716385 0.03165699914097786
-0.053835999220609665 0.04914899915456772 0.030659999698400497
-0.053713999688625336 0.04913400113582611 0.02966099977493286
-0.05349100008606911 0.049118999391794205 0.028658999130129814
-0.053470999002456665 0.049097999930381775 0.027660999447107315
-0.05313599854707718 0.04907099902629852 0.026657000184059143
-0.05301399901509285 0.04905499890446663 0.025658000260591507
-0.05278800055384636 0.04902699962258339 0.02465200051665306
-0.05244600027799606 0.04899099841713905 0.023646999150514603
-0.052087001502513885 0.04894699901342392 0.022647999227046967
-0.05172999948263168 0.04891100153326988 0.021640999242663383
-0.051256999373435974 0.04886699840426445 0.020632000640034676
-0.05077899992465973 0.04880499839782715 0.01964299939572811
-0.05050300061702728 0.0487699992954731 0.018657999113202095
-0.050276998430490494 0.04874499887228012 0.017663000151515007
-0.05031200125813484 0.04875199869275093 0.016674000769853592
-0.0508590005338192 0.04878799989819527 0.01566700078547001
-0.09338100254535675 0.12967100739479065 0.02224300056695938
-0.09160300344228745 0.14473100006580353 0.01915699988603592
-0.09167800098657608 0.14472199976444244 0.018156999722123146
-0.09146799892187119 0.1447180062532425 0.0171549990773201
-0.09122899919748306 0.1447100043296814 0.016155000776052475
-0.09085500240325928 0.1447100043296814 0.015166000463068485
-0.09033799916505814 0.14471200108528137 0.014154000207781792
-0.08297800272703171 0.14734500646591187 0.0031689999159425497
-0.05756700038909912 0.049442000687122345 0.006713999900966883
-0.05790700018405914 0.04946500062942505 0.005690999794751406
-0.058044999837875366 0.04948500171303749 0.004681999795138836
-0.05810699984431267 0.04945699870586395 0.0036639999598264694
-0.058125998824834824 0.04946200177073479 0.0026539999525994062
-0.05801299959421158 0.04944000020623207 0.0016380000161007047
-0.05777600035071373 0.04941000044345856 0.0006300000241026282
-0.05753299966454506 0.04937700182199478 -0.00036800000816583633
-0.05706600099802017 0.04932500049471855 -0.0013770000077784061
-0.056683000177145004 0.04928100109100342 -0.0023769999388605356
-0.056049998849630356 0.049201998859643936 -0.0033629999961704016
-0.055341001600027084 0.04913099855184555 -0.004377999808639288
-0.05451599881052971 0.049049001187086105 -0.005402999930083752
0.019509000703692436 0.09281899780035019 -0.02426600083708763
0.01496800035238266 0.11351499706506729 -0.016310999169945717
-0.008410000242292881 0.09527499973773956 -0.032965999096632004
-0.013729999773204327 0.1072319969534874 -0.021570000797510147
-0.09241200238466263 0.1147100031375885 0.017317000776529312
-0.0427279993891716 0.0478379987180233 -0.011277000419795513
-0.0764319971203804 0.1472339928150177 -0.007860999554395676
-0.07929699867963791 0.15264999866485596 0.002219999907538295
-0.0725340023636818 0.14977699518203735 -0.038743000477552414
-0.03901800140738487 0.04735499992966652 -0.016297999769449234
-0.03862399980425835 0.047262001782655716 -0.017299000173807144
-0.03789199888706207 0.04724999889731407 -0.018310999497771263
-0.03727699816226959 0.04722600057721138 -0.01931699924170971
-0.036600999534130096 0.04728199914097786 -0.020390000194311142
-0.03549699857831001 0.047047000378370285 -0.022311000153422356
-0.08250600099563599 0.11016599833965302 0.0003530000103637576
-0.08898799866437912 0.11585400253534317 0.0042929998598992825
-0.029736999422311783 0.17998699843883514 -0.012024999596178532
-0.0876149982213974 0.136353999376297 0.004215000197291374
-0.01319199986755848 0.11433999985456467 -0.01711300015449524
-0.077844999730587 0.15831199288368225 -0.017920000478625298
0.028750000521540642 0.09116300195455551 -0.020496999844908714
-0.01676199957728386 0.1206429973244667 -0.009697999805212021
-0.07102899998426437 0.16380999982357025 -0.04596799984574318
-0.07394900172948837 0.1568720042705536 -0.026914000511169434
-0.05600399896502495 0.1597760021686554 0.0010969999711960554
0.04848000034689903 0.06511600315570831 -0.0012450000504031777
-0.069582998752594 0.15671700239181519 -0.05094800144433975
0.04836300015449524 0.06283000111579895 -0.002971000038087368
-0.07379200309515 0.16521300375461578 -0.03998799994587898
-0.07273299992084503 0.1736229956150055 -0.05104399845004082
-0.07348600029945374 0.17357699573040009 -0.05008399859070778
-0.07914400100708008 0.16664299368858337 -0.03396400064229965
-0.0870250016450882 0.1363459974527359 0.003215000033378601
-0.04041700065135956 0.17120899260044098 -0.009870000183582306
-0.08548299968242645 0.14045700430870056 0.003192000091075897
-0.07214400172233582 0.1455339938402176 -0.01890300028026104
-0.05708499997854233 0.04809600114822388 0.03566399961709976
-0.057326000183820724 0.04810899868607521 0.033663999289274216
-0.05720499902963638 0.04809200018644333 0.032666999846696854
-0.056724999099969864 0.0480399988591671 0.03166799992322922
-0.0562409982085228 0.047988999634981155 0.03066599927842617
-0.05588499829173088 0.04794599860906601 0.029665999114513397
-0.05528299883008003 0.04788300022482872 0.028665000572800636
-0.05468299984931946 0.047818999737501144 0.027667000889778137
-0.05420299991965294 0.047766998410224915 0.026667999103665352
-0.05372299998998642 0.04771300032734871 0.025666000321507454
-0.05327799916267395 0.04767899960279465 0.02465200051665306
-0.05289600044488907 0.04762599989771843 0.023663999512791634
-0.05253100022673607 0.047582998871803284 0.022662999108433723
-0.05207499861717224 0.047540999948978424 0.02165200002491474
-0.0517130009829998 0.04749700054526329 0.020656000822782516
-0.05124799907207489 0.047449998557567596 0.019655000418424606
-0.050891000777482986 0.04740799963474274 0.018648000434041023
-0.050638001412153244 0.04737899824976921 0.01766899973154068
-0.051026999950408936 0.04743000119924545 0.01668900065124035
-0.0768280029296875 0.1542080044746399 -0.005898999981582165
-0.07742399722337723 0.1555429995059967 -0.01590600050985813
-0.0542449988424778 0.05743800103664398 0.01981000043451786
-0.09041199833154678 0.13106000423431396 0.03921499848365784
-0.09046100080013275 0.13106800615787506 0.03822600096464157
-0.09055499732494354 0.13106100261211395 0.03722599893808365
-0.058435000479221344 0.048211000859737396 0.00674000009894371
-0.05874999985098839 0.048218000680208206 0.00571200018748641
-0.058935001492500305 0.04815400019288063 0.0046720001846551895
-0.05902799963951111 0.04813100025057793 0.0036639999598264694
-0.058807000517845154 0.04812199994921684 0.0026599999982863665
-0.0587179996073246 0.04811599850654602 0.0016370000084862113
-0.058462999761104584 0.04808099940419197 0.0006479999865405262
-0.05810699984431267 0.048041000962257385 -0.0003530000103637576
-0.05774800106883049 0.04799899831414223 -0.0013569999719038606
-0.057291001081466675 0.047965001314878464 -0.002372999908402562
-0.056692998856306076 0.04789799824357033 -0.003384999930858612
-0.05595799908041954 0.047811999917030334 -0.004389999900013208
-0.05511099845170975 0.04771599918603897 -0.005392999853938818
-0.05392900109291077 0.04759899899363518 -0.006434999871999025
-0.03662100061774254 0.1241220012307167 -0.007246000226587057
0.014019999653100967 0.11371699720621109 -0.0165570005774498
-0.08966699987649918 0.15019600093364716 0.023132000118494034
-0.03784500062465668 0.09715200215578079 -0.022430000826716423
-0.04278000071644783 0.046477001160383224 -0.012357000261545181
-0.04259800165891647 0.04639599844813347 -0.013307999819517136
-0.04202299937605858 0.04640699923038483 -0.014347000047564507
-0.04179999977350235 0.04625700041651726 -0.015293999575078487
-0.04096800088882446 0.046236999332904816 -0.017322000116109848
-0.04071500152349472 0.04620400071144104 -0.01832200028002262
-0.040442999452352524 0.04614400118589401 -0.01931600086390972
-0.03996700048446655 0.046140000224113464 -0.02032800018787384
-0.039691999554634094 0.04607899859547615 -0.021310999989509583
-0.08581499755382538 0.1035190001130104 0.003389999968931079
-0.08168800175189972 0.11010300368070602 -0.0005709999823011458
-0.08980099856853485 0.11586999893188477 0.005284000188112259
-0.07873599976301193 0.1680469959974289 -0.038954999297857285
-0.08346299827098846 0.13622400164604187 -0.0006760000251233578
-0.04296499863266945 0.11506099998950958 -0.015713000670075417
-0.05333700031042099 0.16272400319576263 0.0010499999625608325
-0.05332599952816963 0.16271699965000153 0.0020469999872148037
-0.06827700138092041 0.16378900408744812 -0.053971998393535614
-0.09049800038337708 0.13106900453567505 0.03623000159859657
-0.0905819982290268 0.13105499744415283 0.03522999957203865
-0.05645599961280823 0.15987199544906616 0.00406700000166893
-0.07144899666309357 0.15679000318050385 -0.041916001588106155
-0.05173199996352196 0.164109006524086 0.0010359999723732471
-0.06720200181007385 0.1623460054397583 -0.05699700117111206
-0.03960299864411354 0.1741349995136261 -0.0060189999639987946
-0.07188300043344498 0.17364199459552765 -0.05203099921345711
-0.0791499987244606 0.16663800179958344 -0.03496500104665756
-0.07543700188398361 0.1722390055656433 -0.046991001814603806
-0.0734580010175705 0.1679999977350235 -0.04401500150561333
-0.07050199806690216 0.15957799553871155 -0.04593300074338913
-0.09060800075531006 0.1310579925775528 0.034230999648571014
-0.06036499887704849 0.04708800092339516 0.036687999963760376
-0.06032099947333336 0.047019001096487045 0.035670001059770584
-0.0604420006275177 0.04702499881386757 0.03467100113630295
-0.05996499955654144 0.04697199910879135 0.0336729995906353
-0.05972500145435333 0.04694199934601784 0.0326710008084774
-0.0592459999024868 0.04688899964094162 0.031672000885009766
-0.058883000165224075 0.046849001199007034 0.030673999339342117
-0.05816299840807915 0.04677300155162811 0.029675999656319618
-0.057684000581502914 0.04671899974346161 0.028674999251961708
-0.056720998138189316 0.046620000153779984 0.027674000710248947
-0.05588199943304062 0.04653099924325943 0.0266759991645813
-0.05528099834918976 0.046466000378131866 0.025675000622868538
-0.054802000522613525 0.04641199856996536 0.024675000458955765
-0.05384499952197075 0.046310000121593475 0.02367600053548813
-0.05324200168251991 0.0462459996342659 0.022672999650239944
-0.05276099964976311 0.04619399830698967 0.02167399972677231
-0.05228099972009659 0.04614200070500374 0.020673999562859535
-0.05192200094461441 0.04610100015997887 0.01967800036072731
-0.051562000066041946 0.04605799913406372 0.0186769999563694
-0.05158799886703491 0.04607300087809563 0.017681999132037163
-0.05217500030994415 0.04611700028181076 0.01668200083076954
-0.0907210037112236 0.13105399906635284 0.033229999244213104
-0.09085199981927872 0.1310569941997528 0.03223099932074547
-0.0733100026845932 0.14715999364852905 -0.018857000395655632
-0.07320299744606018 0.1471409946680069 -0.019863000139594078
-0.07296399772167206 0.1471329927444458 -0.020860999822616577
-0.07260599732398987 0.14712700247764587 -0.021863000467419624
-0.07236599922180176 0.1471180021762848 -0.02286200039088726
-0.09103800356388092 0.13103699684143066 0.031228000298142433
-0.09117600321769714 0.13104400038719177 0.03023199923336506
-0.06131700053811073 0.04703100025653839 0.006696000229567289
-0.06190900132060051 0.04705100134015083 0.0056779999285936356
-0.062247999012470245 0.04701999947428703 0.004670000169426203
-0.062008000910282135 0.04699299857020378 0.0036730000283569098
-0.061980001628398895 0.046918999403715134 0.002687999978661537
-0.061163000762462616 0.046897001564502716 0.001677999971434474
-0.06058099865913391 0.04686100035905838 0.0006689999718219042
-0.05985400080680847 0.0467820018529892 -0.00032699998700991273
-0.05925799906253815 0.04672100022435188 -0.0013269999762997031
-0.05868399888277054 0.04668699949979782 -0.002345999935641885
-0.057982999831438065 0.04663199931383133 -0.0033629999961704016
-0.0572349987924099 0.046519000083208084 -0.004342999774962664
-0.055962998420000076 0.04643100127577782 -0.005412000231444836
-0.05485900118947029 0.04629100114107132 -0.006395000033080578
0.002329000039026141 0.11669400334358215 -0.0177180003374815
-0.07446999847888947 0.15964099764823914 -0.02993600070476532
0.013043999671936035 0.11386699974536896 -0.016721000894904137
0.005452000070363283 0.12160000205039978 -0.012994999997317791
-0.04410399869084358 0.04513600096106529 -0.012298000045120716
-0.04364100098609924 0.045113999396562576 -0.013322999700903893
-0.04327600076794624 0.04508399963378906 -0.014322999864816666
-0.04302100092172623 0.04505699872970581 -0.01532800029963255
-0.04249599948525429 0.0449800007045269 -0.016318999230861664
-0.042135000228881836 0.04494199901819229 -0.017318999394774437
-0.042002998292446136 0.04493600130081177 -0.01832200028002262
-0.04175100103020668 0.04490499943494797 -0.01932400092482567
-0.04137900099158287 0.04487200081348419 -0.020329000428318977
-0.041138000786304474 0.04485899955034256 -0.021338999271392822
-0.0405769981443882 0.044748999178409576 -0.02230600081384182
-0.03880799934267998 0.04464200139045715 -0.023422999307513237
-0.038245998322963715 0.04459699988365173 -0.02437499910593033
-0.03770200163125992 0.04449800029397011 -0.025337999686598778
-0.09034799784421921 0.11590400338172913 0.006300999782979488
-0.09080000221729279 0.1159219965338707 0.0073009999468922615
-0.09281600266695023 0.1242389976978302 0.03926299884915352
-0.0926700010895729 0.12423399835824966 0.04025400057435036
-0.07642800360918045 0.14861899614334106 -0.009864999912679195
-0.053311001509428024 0.16269299387931824 0.00005500000042957254
-0.03959999978542328 0.1254979968070984 -0.006709999870508909
-0.09141600131988525 0.13104599714279175 0.029234999790787697
-0.09162399917840958 0.13103799521923065 0.028227999806404114
-0.09186500310897827 0.13103899359703064 0.027233999222517014
-0.0723859965801239 0.15682199597358704 -0.03591199964284897
-0.07764100283384323 0.15828700363636017 -0.021926000714302063
-0.092119000852108 0.13104499876499176 0.026241999119520187
-0.08952400088310242 0.13929300010204315 0.03517400100827217
-0.03945999965071678 0.17412400245666504 -0.006996000185608864
-0.07105199992656708 0.17364899814128876 -0.0530409999191761
-0.07900500297546387 0.1666409969329834 -0.03596099838614464
-0.07385600358247757 0.16104400157928467 -0.0339369997382164
-0.09233999997377396 0.13103899359703064 0.02523699961602688
-0.06191200017929077 0.0458189994096756 0.03769100084900856
-0.06212000176310539 0.04580400139093399 0.03667899966239929
-0.062139999121427536 0.04582199826836586 0.035684000700712204
-0.06228100135922432 0.045850999653339386 0.034683000296354294
-0.062362998723983765 0.04581499844789505 0.033677998930215836
-0.062125999480485916 0.04578400030732155 0.03267800062894821
-0.061524998396635056 0.04571999981999397 0.03168100118637085
-0.06104400008916855 0.045667000114917755 0.030680999159812927
-0.060444001108407974 0.045600999146699905 0.029680000618100166
-0.05996299907565117 0.0455470010638237 0.028679000213742256
-0.059122998267412186 0.045458000153303146 0.02768000029027462
-0.057923998683691025 0.04533199965953827 0.026681000366806984
-0.057321999222040176 0.04526599869132042 0.025678999722003937
-0.05660099908709526 0.04518900066614151 0.024681000038981438
-0.055879998952150345 0.0451119989156723 0.023679999634623528
-0.05480000004172325 0.04499699920415878 0.022679999470710754
-0.05396300181746483 0.044906001538038254 0.021681999787688255
-0.05323899909853935 0.044833000749349594 0.020680999383330345
-0.05288099870085716 0.044787999242544174 0.01968199945986271
-0.05276000127196312 0.04477199912071228 0.018682999536395073
-0.05303400009870529 0.04483199864625931 0.017696000635623932
-0.053870998322963715 0.04490799829363823 0.016706999391317368
-0.05482599884271622 0.04500000178813934 0.01570899970829487
-0.09255199879407883 0.13103200495243073 0.024235999211668968
-0.0913420021533966 0.14749500155448914 0.02314000017940998
-0.09119299799203873 0.14748899638652802 0.02412799932062626
-0.09267699718475342 0.1310340017080307 0.023236999288201332
-0.0893239974975586 0.13929800689220428 0.036173999309539795
-0.0928020030260086 0.1310350000858307 0.02223600074648857
-0.06397099792957306 0.04592699930071831 0.007716999854892492
-0.06456200033426285 0.0459510013461113 0.006697999779134989
-0.06525599956512451 0.04595400020480156 0.005681000184267759
-0.06534899771213531 0.04590500146150589 0.00467800023034215
-0.06509999930858612 0.04585399851202965 0.00368899991735816
-0.06461499631404877 0.0457880012691021 0.0026970000471919775
-0.06403400003910065 0.04576300084590912 0.0016949999844655395
-0.06329900026321411 0.04565700143575668 0.000707999977748841
-0.06268399953842163 0.04556199908256531 -0.00028199999360367656
-0.061758000403642654 0.045531999319791794 -0.0013050000416114926
-0.06092499941587448 0.045458998531103134 -0.0023109999019652605
-0.05987099930644035 0.04539699852466583 -0.003335000015795231
-0.059238001704216 0.045274000614881516 -0.004300999920815229
-0.05782800167798996 0.04506799951195717 -0.005446999799460173
-0.08582799881696701 0.10080000013113022 0.0013970000436529517
-0.08839800208806992 0.10368400067090988 0.013379000127315521
0.03875900059938431 0.10495399683713913 -0.001041000010445714
-0.03283600136637688 0.09579899907112122 -0.023545999079942703
-0.0628570020198822 0.09535899758338928 -0.0185100007802248
-0.03239800035953522 0.11403600126504898 -0.016697000712156296
-0.04515400156378746 0.043768998235464096 -0.012241000309586525
-0.0446150004863739 0.04376799985766411 -0.013292999938130379
-0.04427200183272362 0.043751999735832214 -0.014317000284790993
-0.04402000084519386 0.043724000453948975 -0.015313999727368355
-0.043519001454114914 0.043671999126672745 -0.016315000131726265
-0.04316199943423271 0.043650999665260315 -0.01732099987566471
-0.04291500151157379 0.04362700134515762 -0.01832200028002262
-0.042890001088380814 0.04359700158238411 -0.019314000383019447
-0.04252199828624725 0.043567001819610596 -0.02032100036740303
-0.04225499927997589 0.043526001274585724 -0.021316999569535255
-0.041795000433921814 0.04351099953055382 -0.02235100045800209
-0.040219999849796295 0.04331300035119057 -0.023314999416470528
-0.039315998554229736 0.04320399835705757 -0.024302000179886818
-0.03875799849629402 0.04320399835705757 -0.025350000709295273
-0.03820699825882912 0.04311700165271759 -0.02633100003004074
-0.03718400001525879 0.04300199821591377 -0.02732500061392784
-0.09178599715232849 0.11596900224685669 0.009314999915659428
-0.09272900223731995 0.12422399967908859 0.03626599907875061
-0.01425199955701828 0.18147900700569153 -0.02795499935746193
-0.09298499673604965 0.1310099959373474 0.021230999380350113
-0.013259000144898891 0.12123099714517593 -0.01039700023829937
-0.09301000088453293 0.1310179978609085 0.020229000598192215
-0.09310799837112427 0.13100600242614746 0.019231000915169716
-0.07372300326824188 0.15686500072479248 -0.027914000675082207
-0.09004099667072296 0.13925400376319885 0.02317800000309944
-0.08939000219106674 0.13927799463272095 0.029184000566601753
-0.09299600124359131 0.13099800050258636 0.01822900027036667
-0.06745599955320358 0.16519999504089355 -0.05598900094628334
-0.07430999726057053 0.16518400609493256 -0.03901299834251404
-0.09276700019836426 0.13099199533462524 0.01723100058734417
-0.05016300082206726 0.16554099321365356 -0.0009629999985918403
-0.07666199654340744 0.15560799837112427 -0.007891000248491764
-0.07312700152397156 0.15545499324798584 -0.030906999483704567
-0.09264300018548965 0.1309799998998642 0.01623000018298626
-0.06312199681997299 0.04453900083899498 0.03771499916911125
-0.06324099749326706 0.04454699903726578 0.03669799864292145
-0.06346900016069412 0.04455700144171715 0.035691000521183014
-0.0635870024561882 0.0445609986782074 0.034689001739025116
-0.06371200084686279 0.04457499831914902 0.03368699923157692
-0.0636029988527298 0.04456299915909767 0.032683998346328735
-0.06335300207138062 0.044530000537633896 0.03168199956417084
-0.06299600005149841 0.04449300095438957 0.03067599982023239
-0.062366001307964325 0.04439700022339821 0.029688000679016113
-0.06189600005745888 0.04436400160193443 0.02868100069463253
-0.06128399819135666 0.04427700117230415 0.02768700011074543
-0.060203999280929565 0.04416299983859062 0.02668900042772293
-0.05948299914598465 0.04408400133252144 0.025689000263810158
-0.058400001376867294 0.04396999999880791 0.02468699961900711
-0.05768200010061264 0.043891001492738724 0.023687999695539474
-0.0567220002412796 0.04378899931907654 0.02268899977207184
-0.05564099922776222 0.04367300122976303 0.021687999367713928
-0.05468299984931946 0.043570999056100845 0.020692000165581703
-0.05420200154185295 0.043515998870134354 0.019690999761223793
-0.05407999828457832 0.04349900037050247 0.01869099959731102
-0.0548430010676384 0.04363499954342842 0.01772399991750717
-0.056262001395225525 0.043744999915361404 0.016712000593543053
-0.09263300150632858 0.1309709995985031 0.015232999809086323
-0.0763460025191307 0.1514109969139099 -0.007888000458478928
-0.07578200101852417 0.15139900147914886 -0.0088919997215271
-0.0755470022559166 0.15139000117778778 -0.009890000335872173
-0.07538799941539764 0.15144099295139313 -0.010913999751210213
-0.07540100067853928 0.15136399865150452 -0.011895000003278255
-0.09263300150632858 0.13096599280834198 0.014232000336050987
-0.09252399951219559 0.13096100091934204 0.013233999721705914
-0.0934469997882843 0.12963199615478516 0.018237000331282616
-0.0923829972743988 0.13094200193881989 0.012238999828696251
-0.06719999760389328 0.04478900134563446 0.0056929998099803925
-0.06730400025844574 0.044773999601602554 0.004685999825596809
-0.06720799952745438 0.044791001826524734 0.0036879999097436666
-0.06694799661636353 0.04472700133919716 0.002681999932974577
-0.06654699891805649 0.044624000787734985 0.0017040000529959798
-0.06580899655818939 0.04450799897313118 0.0007179999956861138
-0.064969003200531 0.04442499950528145 -0.00028199999360367656
-0.06427499651908875 0.04438599944114685 -0.0012959999730810523
-0.06376399844884872 0.04427099972963333 -0.0022690000478178263
-0.06279800087213516 0.04415399953722954 -0.0032550001051276922
-0.08426199853420258 0.10070200264453888 -0.002609000075608492
-0.0844229981303215 0.10069800168275833 -0.0015670000575482845
-0.08817200362682343 0.10366400331258774 0.011385999619960785
-0.07033099979162216 0.17224900424480438 -0.053029999136924744
-0.031846001744270325 0.09582599997520447 -0.02362300083041191
0.02523699961602688 0.0926010012626648 -0.022021999582648277
-0.04600999876856804 0.042688999325037 -0.011574000120162964
-0.045958999544382095 0.042458001524209976 -0.012253999710083008
-0.04561299830675125 0.04244700074195862 -0.013275000266730785
-0.04515000060200691 0.042419999837875366 -0.014305000193417072
-0.044780001044273376 0.042385999113321304 -0.015306999906897545
-0.04452599957585335 0.04235599935054779 -0.016304999589920044
-0.0440329983830452 0.04230700060725212 -0.017309000715613365
-0.04378100112080574 0.04228200018405914 -0.0183119997382164
-0.04379099979996681 0.042281001806259155 -0.019310999661684036
-0.04353399947285652 0.04224900156259537 -0.02031799964606762
-0.04316199943423271 0.042211998254060745 -0.021317999809980392
-0.04274899885058403 0.042142998427152634 -0.02230600081384182
-0.04120500013232231 0.04196999967098236 -0.023287000134587288
-0.040424998849630356 0.04187000170350075 -0.024264000356197357
-0.03996000066399574 0.04185200110077858 -0.025304000824689865
-0.03935899958014488 0.041815001517534256 -0.02633499912917614
-0.08010599762201309 0.10997699946165085 -0.00253499997779727
-0.09234300255775452 0.11599799990653992 0.01131800003349781
-0.09269899874925613 0.12421499937772751 0.03527100011706352
-0.06795100122690201 0.17085500061511993 -0.056028999388217926
-0.09215600043535233 0.1309340000152588 0.011242000386118889
-0.04721200093626976 0.1684119999408722 -0.001986999996006489
-0.09104699641466141 0.13923099637031555 0.018191000446677208
-0.09193199872970581 0.1309330016374588 0.010242000222206116
-0.053252000361680984 0.16121600568294525 -0.0018840000266209245
-0.03326300159096718 0.17703500390052795 -0.011981000192463398
-0.09160599857568741 0.1309259980916977 0.009236999787390232
-0.0669960007071495 0.1651960015296936 -0.057009998708963394
-0.06977400183677673 0.1694280058145523 -0.052035000175237656
-0.09126699715852737 0.13091899454593658 0.008237999863922596
-0.0771310031414032 0.15557199716567993 -0.010897999629378319
-0.07728800177574158 0.15554699301719666 -0.012896999716758728
-0.07373300194740295 0.15547999739646912 -0.025908999145030975
-0.07992900162935257 0.15137100219726562 0.0012100000167265534
-0.09091600030660629 0.1309099942445755 0.007242000196129084
-0.09038099646568298 0.13090400397777557 0.006231000181287527
-0.09111800044775009 0.1283320039510727 0.04023599997162819
-0.06445900350809097 0.043278999626636505 0.03571400046348572
-0.06459899991750717 0.04329900071024895 0.034713998436927795
-0.06468299776315689 0.04327400028705597 0.033695999532938004
-0.06445399671792984 0.04325399920344353 0.03269200026988983
-0.06418400257825851 0.04320799931883812 0.031693000346422195
-0.06401199847459793 0.043219998478889465 0.03067700006067753
-0.06375300139188766 0.04318400099873543 0.029678000137209892
-0.06337200105190277 0.04313100129365921 0.028667999431490898
-0.06276799738407135 0.043069999665021896 0.027668999508023262
-0.06212199851870537 0.0429610013961792 0.026693999767303467
-0.061163000762462616 0.042858000844717026 0.025696000084280968
-0.0604420006275177 0.042778998613357544 0.024695999920368195
-0.059480998665094376 0.04267499968409538 0.02369599975645542
-0.05852299928665161 0.04257100075483322 0.022696999832987785
-0.057440999895334244 0.042454998940229416 0.021695999428629875
-0.0567220002412796 0.04237600043416023 0.020698999986052513
-0.05611800029873848 0.04230999946594238 0.01969599910080433
-0.0564659982919693 0.04231800138950348 0.018688999116420746
-0.057339999824762344 0.042454998940229416 0.01771700009703636
-0.08992599695920944 0.13089300692081451 0.005231000017374754
-0.0741719976067543 0.15267999470233917 -0.028889000415802002
-0.07430300116539001 0.15268799662590027 -0.02789199911057949
-0.07442300021648407 0.15269500017166138 -0.02689100056886673
-0.07453300058841705 0.15269599854946136 -0.02589000016450882
-0.07456199824810028 0.15270699560642242 -0.024894999340176582
-0.07467500120401382 0.15271100401878357 -0.023893000558018684
-0.07477500289678574 0.15271499752998352 -0.022890999913215637
-0.08934900164604187 0.13088099658489227 0.004238999914377928
-0.08875299990177155 0.13086600601673126 0.0032579998951405287
-0.08805999904870987 0.13085000216960907 0.0022559999488294125
-0.06853099912405014 0.043522998690605164 0.0036869999021291733
-0.06866399943828583 0.043542999774217606 0.0026809999253600836
-0.0683789998292923 0.043466001749038696 0.0016929999692365527
-0.06766100227832794 0.04339300096035004 0.0006890000076964498
-0.06710900366306305 0.04324200004339218 -0.0002570000069681555
-0.0661659985780716 0.043157998472452164 -0.0012730000307783484
-0.06572200357913971 0.04315299913287163 -0.0022929999977350235
-0.06511999666690826 0.04308300092816353 -0.0032939999364316463
-0.06422799825668335 0.04290900006890297 -0.004242999944835901
-0.08813200145959854 0.10367699712514877 0.017356999218463898
-0.08840099722146988 0.10368599742650986 0.014375000260770321
-0.08828999847173691 0.1036750003695488 0.012381000444293022
0.0020620001014322042 0.12123599648475647 -0.012552999891340733
-0.00483600003644824 0.09101200103759766 -0.03564700111746788
-0.04890400171279907 0.04138299822807312 -0.011250999756157398
-0.04649699851870537 0.04112600162625313 -0.012245000340044498
-0.04632199928164482 0.04110899940133095 -0.013271000236272812
-0.04600600153207779 0.041078001260757446 -0.014283999800682068
-0.04566600173711777 0.041058000177145004 -0.015297999605536461
-0.04528599977493286 0.04101400077342987 -0.016296999529004097
-0.044776998460292816 0.04095900058746338 -0.01730000041425228
-0.04464999958872795 0.0409419983625412 -0.018299000337719917
-0.044523999094963074 0.04092299938201904 -0.01929900050163269
-0.042330000549554825 0.04065699875354767 -0.023266000673174858
-0.04176599904894829 0.0406389981508255 -0.024309000000357628
-0.04135499894618988 0.04057599976658821 -0.025296999141573906
-0.08084399998188019 0.11004199832677841 -0.0015569999814033508
-0.09288299828767776 0.1160380020737648 0.014317000284790993
-0.09258899837732315 0.12421099841594696 0.034269001334905624
-0.0578170008957386 0.08687999844551086 -0.0210999995470047
-0.08718200027942657 0.13081300258636475 0.0012890000361949205
-0.0864730030298233 0.13078799843788147 0.0002880000101868063
-0.07749500125646591 0.1583389937877655 -0.014910999685525894
-0.0686509981751442 0.16379199922084808 -0.05297800153493881
-0.08575999736785889 0.1307629942893982 -0.0007140000234358013
-0.07863900065422058 0.16387300193309784 -0.027953000739216805
-0.08492100238800049 0.13073299825191498 -0.0017010000301524997
-0.07836700230836868 0.17633900046348572 -0.04808500036597252
-0.04676099866628647 0.12602299451828003 -0.007195000071078539
-0.0681850016117096 0.16944299638271332 -0.05501500144600868
0.0304540004581213 0.11456199735403061 -0.005462999921292067
-0.07746399939060211 0.15554900467395782 -0.013903000392019749
-0.07747200131416321 0.15553699433803558 -0.014907999895513058
-0.07301399856805801 0.1554500013589859 -0.031908001750707626
-0.07238499820232391 0.1554269939661026 -0.03590499982237816
0.020878000184893608 0.1176069974899292 -0.010749000124633312
0.027898000553250313 0.11377199739217758 -0.008620000444352627
-0.01944199949502945 0.09529899805784225 -0.03105200082063675
-0.0403750017285347 0.12407699972391129 -0.009198999963700771
-0.06486400216817856 0.04189100116491318 0.03266499936580658
-0.06457400321960449 0.04185499995946884 0.03169599920511246
-0.04530499875545502 0.11363399773836136 -0.01622699946165085
-0.06473299860954285 0.041875001043081284 0.029684999957680702
-0.06439399719238281 0.041843999177217484 0.028672000393271446
-0.06400399655103683 0.04179000109434128 0.0276699997484684
-0.0635169968008995 0.04173799976706505 0.026676999405026436
-0.0627250000834465 0.04161899909377098 0.02570199966430664
-0.0617620013654232 0.041517000645399094 0.024702999740839005
-0.06092299893498421 0.04142399877309799 0.02370299957692623
-0.060081999748945236 0.0413299985229969 0.022701000794768333
-0.05900000035762787 0.04121600091457367 0.021702999249100685
-0.05840099975466728 0.041147999465465546 0.020705999806523323
-0.05791899934411049 0.04109400138258934 0.019704999402165413
-0.05829000100493431 0.0411360003054142 0.018710000440478325
-0.04317700117826462 0.11363600194454193 -0.016220999881625175
-0.05610499903559685 0.1582539975643158 0.00020599999697878957
-0.05528999865055084 0.15829400718212128 -0.000770999991800636
-0.07038500159978867 0.16801999509334564 -0.050030000507831573
-0.06851500272750854 0.16803200542926788 -0.05399300158023834
-0.06652799993753433 0.1680310070514679 -0.05803399905562401
-0.09262300282716751 0.12407699972391129 0.00926900003105402
-0.08470699936151505 0.14041100442409515 0.002240000059828162
-0.09134399890899658 0.12833000719547272 0.03923900052905083
-0.07095599919557571 0.15817199647426605 -0.04391700029373169
-0.07812699675559998 0.15285399556159973 0.00010699999984353781
-0.06945499777793884 0.042194001376628876 0.0037010000087320805
-0.06964100152254105 0.04225200042128563 0.002689999993890524
-0.06953500211238861 0.04224099963903427 0.0016850000247359276
-0.06909999996423721 0.04214499890804291 0.0006990000256337225
-0.06838899850845337 0.04207700118422508 -0.00030899999546818435
-0.06748700141906738 0.04192199930548668 -0.001269000000320375
